# .PCD v0.7 - Point Cloud Data file format
VERSION 0.7
FIELDS x y z
SIZE 4 4 4
TYPE F F F
COUNT 1 1 1
WIDTH 1491
HEIGHT 1
VIEWPOINT 0 0 0 1 0 0 0
POINTS 1491
DATA ascii
512777.0625 5403845 393.3399963
512777.0625 5403846 393.3699951
512777.0312 5403847.5 393.3800049
512777.0312 5403848.5 393.4400024
512777.0312 5403850 393.4400024
512778.0938 5403849.5 393.4200134
512778.0938 5403848 393.4200134
512778.125 5403847 393.3800049
512778.125 5403845.5 393.2900085
512778.1562 5403844 393.2399902
512778.1875 5403843 393.1700134
512778.2188 5403841.5 393.0599976
512778.2188 5403840.5 393.1300049
512778.25 5403839 393.0499878
512778.25 5403838 393.0100098
512778.2812 5403836.5 392.980011
512778.3125 5403835.5 392.9100037
512778.4375 5403829 392.1199951
512778.5312 5403827.5 390.4899902
512778.5312 5403826 390.6400146
512778.8438 5403810.5 388.8399963
512778.9062 5403806.5 388.5400085
512779.2812 5403795.5 384.4599915
512779.3125 5403794.5 384.1499939
512779.3438 5403792.5 383.9500122
512779.375 5403792 383.8599854
512779.375 5403791.5 383.769989
512779.375 5403791.5 383.7999878
512779.4375 5403790 383.8299866
512779.4688 5403790 383.7600098
512779.5 5403790 383.6900024
512779.5 5403789.5 383.7600098
512779.5 5403789.5 383.7000122
512779.5 5403789.5 383.75
512779.5312 5403789.5 383.6900024
512779.5312 5403790 383.7000122
512779.5312 5403790 383.9500122
512779.5312 5403792.5 383.8599854
512779.5312 5403793.5 384.0700073
512779.5 5403796 384.5100098
512779.25 5403806 388.4100037
512779.25 5403809.5 388.4400024
512779.0938 5403826.5 390.4700012
512779.0938 5403827.5 390.3900146
512779.0938 5403829 390.3299866
512778.9375 5403835.5 393.019989
512778.9375 5403837 393.019989
512778.9375 5403838 392.980011
512778.9062 5403839.5 393.0100098
512778.9062 5403840.5 393.0899963
512778.9062 5403842 393.1400146
512778.9062 5403843 393.2099915
512778.9062 5403844.5 393.2399902
512778.875 5403846 393.2600098
512778.875 5403847 393.4500122
512778.875 5403848.5 393.4500122
512778.875 5403849.5 393.4700012
512779.9375 5403849 393.4599915
512779.9375 5403847.5 393.3599854
512779.9688 5403846.5 393.269989
512779.9688 5403845 393.3099976
512780 5403844 393.2399902
512780.0312 5403842.5 393.1300049
512780.0625 5403841 393.0700073
512780.0625 5403840 392.9500122
512780.0938 5403838.5 392.9400024
512780.0938 5403837.5 393.019989
512780.3438 5403829.5 390.230011
512780.375 5403828.5 390.2600098
512780.625 5403816.5 388.3200073
512780.625 5403815 388.6799927
512780.625 5403814 388.7999878
512780.625 5403812.5 388.75
512780.6875 5403810 388.2999878
512780.7188 5403808.5 388.2099915
512780.8125 5403803.5 387.8699951
512780.8438 5403802 387.4700012
512781.125 5403794 383.8599854
512781.125 5403793.5 383.8999939
512781.2812 5403790.5 383.6700134
512781.2812 5403790.5 383.8099976
512781.2812 5403790.5 383.769989
512781.3125 5403790.5 383.8200073
512781.3125 5403790.5 383.7200012
512781.2812 5403797 384.5299988
512781.125 5403799.5 387.269989
512781.0938 5403803.5 387.6799927
512781.0938 5403808 388.0400085
512781.0625 5403809.5 388.2600098
512781.0312 5403810.5 388.8299866
512781.0312 5403812 388.8200073
512781.0312 5403814.5 388.3999939
512781.0312 5403815.5 388.4500122
512780.9062 5403828.5 390.1600037
512780.9062 5403830 390.1700134
512780.9062 5403831 390.1499939
512780.8125 5403832.5 392.3699951
512780.75 5403836.5 393.0400085
512780.75 5403837.5 393.1300049
512780.75 5403839 392.9500122
512780.75 5403840.5 393
512780.75 5403841.5 393.0400085
512780.75 5403843 393.0899963
512780.7188 5403844 393.2399902
512780.7188 5403845.5 393.2799988
512780.7188 5403846.5 393.3299866
512780.7188 5403848 393.4200134
512780.6875 5403849.5 393.4299927
512781.75 5403850 393.4599915
512781.8125 5403844.5 393.3399963
512781.8438 5403843.5 393.1600037
512781.875 5403842 393.0700073
512781.875 5403841 393.0299988
512781.9062 5403839.5 392.9899902
512781.9062 5403838 393.1000061
512781.9375 5403837 393.0599976
512781.9375 5403835.5 393
512782.125 5403831.5 390.0899963
512782.1562 5403830.5 390.1000061
512782.1562 5403829 390.1199951
512782.4688 5403813.5 388.2099915
512782.4688 5403812 388.230011
512782.5 5403811 387.9400024
512782.5312 5403809.5 387.9100037
512782.5312 5403808 387.9299927
512782.5625 5403807 387.9200134
512782.5938 5403805.5 387.5799866
512782.5938 5403804 387.8200073
512782.8438 5403798.5 384.25
512782.8438 5403797.5 384.3900146
512782.875 5403795.5 384.0599976
512782.9062 5403795 383.8599854
512782.9062 5403794 384.019989
512782.9375 5403794 383.75
512783 5403792.5 383.7399902
512783 5403792.5 383.7200012
512783 5403792 383.7200012
512783 5403792 383.6900024
512783.0312 5403792 383.6400146
512783.0312 5403792 383.7799988
512783.0312 5403791.5 383.7099915
512783.0312 5403791.5 383.7099915
512783.0938 5403791.5 383.6600037
512783.0938 5403791.5 383.7000122
512783.0938 5403792 383.6600037
512783.0938 5403792 383.6799927
512783.0938 5403795.5 383.9400024
512783.0625 5403798 384.4100037
512782.9375 5403801.5 386.7399902
512782.875 5403804 387.7900085
512782.9375 5403805.5 387.0100098
512782.9375 5403806.5 386.9899902
512782.875 5403809 387.7799988
512782.875 5403810 387.8299866
512782.8438 5403813 388.5599976
512782.7188 5403829.5 390.0100098
512782.7188 5403830.5 390.019989
512782.7188 5403832 390.1400146
512782.7188 5403833 390.1000061
512782.5938 5403834.5 392.9700012
512782.5625 5403836 393.019989
512782.5625 5403837.5 393.0700073
512782.5625 5403838.5 393.1099854
512782.5625 5403840 393.0700073
512782.5625 5403841 393.0799866
512782.5625 5403842.5 393.1400146
512782.5625 5403843.5 393.1600037
512782.5312 5403845 393.269989
512783.625 5403848 393.480011
512783.625 5403847 393.4100037
512783.625 5403845.5 393.3500061
512783.6562 5403844 393.1700134
512783.7188 5403840.5 393.1300049
512783.7188 5403839 393.1300049
512783.75 5403838 393.0899963
512783.7812 5403836.5 393.0100098
512783.7812 5403835.5 393.019989
512783.8125 5403834 392.9599915
512783.9688 5403831 390.0499878
512784 5403830 390.019989
512784.3125 5403811.5 387.8399963
512784.3438 5403810.5 387.730011
512784.3438 5403809 388.0400085
512784.4062 5403807.5 386.5100098
512784.4375 5403806 386.5899963
512784.4688 5403802.5 386.6700134
512784.6562 5403799.5 383.7000122
512784.6875 5403795 384.0299988
512784.7188 5403794.5 383.6900024
512784.75 5403794 383.7399902
512784.75 5403794 383.75
512784.75 5403793.5 383.6499939
512784.75 5403793.5 383.6799927
512784.7812 5403793.5 383.6799927
512784.7812 5403793 383.6600037
512784.7812 5403793 383.6300049
512784.8125 5403793 383.6300049
512784.8125 5403793 383.6000061
512784.8125 5403792.5 383.6300049
512784.8125 5403792.5 383.6000061
512784.8125 5403792.5 383.6400146
512784.8438 5403792.5 383.6499939
512784.8438 5403792.5 383.6000061
512784.8438 5403792.5 383.5799866
512784.8438 5403792.5 383.6700134
512784.875 5403792.5 383.519989
512784.875 5403792.5 383.6099854
512784.875 5403793 383.5899963
512784.875 5403793.5 383.7099915
512784.875 5403794.5 383.7600098
512784.875 5403797.5 384.1700134
512784.875 5403798.5 383.8500061
512784.7188 5403801.5 387.2099915
512784.75 5403802.5 386.5299988
512784.75 5403804 386.5899963
512784.75 5403806 386.6400146
512784.75 5403807 386.5799866
512784.6562 5403808.5 387.9299927
512784.6875 5403810 387.6400146
512784.6875 5403811 387.75
512784.6562 5403812.5 388
512784.5312 5403830 390.0499878
512784.5312 5403831.5 390.019989
512784.4062 5403834.5 392.9200134
512784.375 5403835.5 392.980011
512784.375 5403837 393.0400085
512784.375 5403838 393.0299988
512784.375 5403839.5 393.1099854
512784.375 5403840.5 393.2000122
512784.375 5403842 393.1600037
512784.375 5403844.5 393.2099915
512784.375 5403846 393.2799988
512784.375 5403847 393.3900146
512784.3438 5403849.5 393.5400085
512785.4375 5403847.5 393.2900085
512785.4688 5403846.5 393.3500061
512785.5 5403842.5 393.230011
512785.5312 5403841 393.3399963
512785.5312 5403840 393.3200073
512785.5625 5403838.5 393.0899963
512785.5938 5403837.5 393.0599976
512785.5938 5403836 393.0100098
512785.625 5403835 393.0299988
512785.7812 5403832 389.8999939
512786.0938 5403812.5 388.1099854
512786.125 5403811 387.6600037
512786.1562 5403810 387.5499878
512786.1875 5403808.5 386.8800049
512786.2188 5403807 386.3999939
512786.25 5403806 386.5499878
512786.5 5403797 383.269989
512786.5 5403796.5 383.5100098
512786.5 5403796 383.6499939
512786.5 5403795.5 383.5700073
512786.5938 5403793.5 383.6099854
512786.625 5403793.5 383.5700073
512786.625 5403793 383.5100098
512786.625 5403793.5 383.5599976
512786.625 5403793 383.5299988
512786.625 5403793 383.6000061
512786.625 5403793 383.6000061
512786.6562 5403793 383.5299988
512786.6562 5403793.5 383.5700073
512786.6562 5403793.5 383.5400085
512786.6562 5403795.5 383.6400146
512786.6875 5403796 383.5599976
512786.7188 5403797 382.9700012
512786.6875 5403799.5 383.4500122
512786.5312 5403804.5 386.3399963
512786.5312 5403807 386.3599854
512786.5 5403809.5 387.3999939
512786.4688 5403810.5 387.5499878
512786.4688 5403812 387.7999878
512786.4688 5403813 388.0400085
512786.375 5403832.5 389.8900146
512786.2188 5403835 392.9599915
512786.2188 5403836.5 393.0100098
512786.1875 5403837.5 393.1000061
512786.1875 5403839 393.0700073
512786.2812 5403841.5 391.3099976
512786.1875 5403849 393.4400024
512787.25 5403849.5 393.8699951
512787.2812 5403847 393.5
512787.4062 5403845.5 391.2399902
512787.3438 5403840.5 393.6000061
512787.4062 5403838 393.0799866
512787.4062 5403837 393.1000061
512787.5 5403835.5 391.5100098
512787.4688 5403834 392.1300049
512787.5938 5403833 389.9299927
512787.875 5403814.5 387.980011
512787.9062 5403813 387.7600098
512787.9375 5403812 387.4899902
512787.9375 5403810.5 387.519989
512787.9688 5403809 387.4500122
512788.0312 5403806.5 386.8099976
512788.0625 5403805 386.2200012
512788.0938 5403804 386.230011
512788.2188 5403801 383.7600098
512788.25 5403799.5 383.4100037
512788.2812 5403798.5 383.1900024
512788.375 5403796.5 382.25
512788.4375 5403794.5 382.1600037
512788.4375 5403794 382.1700134
512788.4375 5403794 382.2099915
512788.5312 5403794.5 382.0499878
512788.5312 5403796.5 382.4200134
512788.5 5403799 383.1900024
512788.4688 5403800 383.6600037
512788.4375 5403801.5 383.980011
512788.3438 5403804 386.2600098
512788.3438 5403805 386.3399963
512788.3438 5403806.5 386.6300049
512788.3125 5403807.5 387.25
512788.2812 5403809 387.4299927
512788.2812 5403810 387.4400024
512788.2812 5403811.5 387.5100098
512788.2812 5403812.5 387.5100098
512788.2812 5403814 387.75
512788.2812 5403815 387.980011
512788.0625 5403834.5 392.1700134
512788.0625 5403836 392.4200134
512788 5403837 393.4299927
512788.0312 5403838.5 393.3200073
512788.125 5403839.5 391.0899963
512788.1875 5403841 389.8999939
512789.25 5403849 390.9899902
512789.3125 5403843.5 390.3099976
512789.2188 5403841.5 392.7900085
512789.25 5403840 392.4599915
512789.5 5403838.5 387.9899902
512789.2812 5403837.5 392.6900024
512789.7188 5403816.5 387.8800049
512789.7188 5403815 387.6099854
512789.75 5403812.5 387.5100098
512789.7812 5403811 387.480011
512789.875 5403805.5 386.2399902
512789.9062 5403804.5 386.2799988
512790 5403803 384.519989
512790.0625 5403801.5 383.6300049
512790.0625 5403800.5 383.480011
512790.0938 5403799 383.1600037
512790.2812 5403794.5 381.7099915
512790.2812 5403794.5 381.7000122
512790.3125 5403794.5 381.7600098
512790.3125 5403794 381.730011
512790.3438 5403794 381.7099915
512790.3438 5403794 381.7099915
512790.3438 5403794.5 381.7799988
512790.375 5403795 381.7200012
512790.3438 5403798.5 382.7200012
512790.3125 5403799.5 383.1900024
512790.3125 5403801 383.5400085
512790.2812 5403802 383.8999939
512790.1875 5403806 386.1499939
512790.125 5403807 386.8500061
512790.125 5403808.5 387.2799988
512790.125 5403809.5 387.3999939
512790.125 5403810.5 387.4899902
512790.125 5403812 387.519989
512790.125 5403813 387.480011
512790.0938 5403815.5 388.0799866
512790.0625 5403835 389.4899902
512789.9688 5403837.5 391.4500122
512789.9062 5403839 392.2900085
512789.9375 5403848 391.7600098
512790 5403849 390.9299927
512791.0938 5403849.5 391.8200073
512791.125 5403848 391.2999878
512791.1875 5403847 390.019989
512791.125 5403839 392.7900085
512791.25 5403838 390.6600037
512791.375 5403836.5 388.3200073
512791.3438 5403835 389.4500122
512791.375 5403834 389.0299988
512791.625 5403814 387.4899902
512791.5938 5403813 388.1099854
512791.625 5403811.5 387.5899963
512791.6562 5403810.5 387.2999878
512791.6875 5403809 386.8599854
512791.9062 5403803 383.4200134
512791.9062 5403802 383.2999878
512791.9375 5403801 382.9700012
512792 5403799 382.4700012
512792.0312 5403798 382.1499939
512792.0312 5403797.5 382.0299988
512792.0625 5403797 381.7900085
512792.0625 5403796.5 381.6400146
512792.0938 5403796.5 381.5799866
512792.0938 5403796 381.5299988
512792.0938 5403796 381.6400146
512792.125 5403795.5 381.3599854
512792.125 5403795.5 381.480011
512792.125 5403795.5 381.4599915
512792.125 5403795 381.5100098
512792.1562 5403795 381.980011
512792.1562 5403795 381.9500122
512792.1875 5403795 381.9500122
512792.1875 5403795 381.9899902
512792.25 5403796 381.4599915
512792.2188 5403797 381.7000122
512792.2188 5403798 382.0100098
512792.1875 5403799 382.5599976
512792.1875 5403800 382.7600098
512792.1875 5403801 382.9299927
512792.1562 5403802.5 383.25
512792.0312 5403807.5 386.6300049
512792 5403808.5 386.8200073
512792 5403810 387.1600037
512791.9688 5403811 387.6700134
512792 5403812.5 387.4400024
512792 5403813.5 387.4500122
512792 5403815 387.480011
512791.9688 5403817.5 388.1199951
512791.9688 5403833 388.3399963
512792 5403835.5 387.8999939
512791.9062 5403838 389.8500061
512792.0625 5403839 387.25
512791.9375 5403847 389.9100037
512791.9375 5403848.5 390.0799866
512791.8125 5403849.5 392.3699951
512793.0938 5403849.5 390.0799866
512793.125 5403848.5 389.7399902
512793.125 5403847 389.730011
512793.2812 5403842 387.2000122
512793.3438 5403840.5 386.3599854
512793.375 5403839 385.7900085
512793.4062 5403838 385.3800049
512793.2188 5403837 389.2900085
512793.25 5403835.5 388.9599915
512793.3125 5403833 388.3099976
512793.3125 5403831.5 388.3099976
512793.4375 5403818.5 388
512793.4688 5403817.5 387.5499878
512793.5 5403816 387.3699951
512793.5 5403814.5 387.5
512793.4688 5403813.5 388.2099915
512793.5 5403812 388.2000122
512793.5312 5403810.5 387.4400024
512793.5938 5403809.5 386.5599976
512793.625 5403808 385.8299866
512793.8125 5403805 382.7600098
512793.8125 5403803.5 382.7600098
512793.875 5403801 382.5
512793.9062 5403799 381.8999939
512793.9375 5403798.5 381.5899963
512793.9375 5403798 381.5799866
512793.9688 5403797.5 381.3900146
512793.9688 5403797 381.269989
512794.0312 5403796 380.9599915
512794.0312 5403795.5 381.1600037
512794.0625 5403795.5 381.0299988
512794.125 5403797 381.2200012
512794.125 5403798.5 381.519989
512794.0938 5403800.5 382.4200134
512794.0938 5403801.5 382.5799866
512794.0938 5403803 382.3599854
512794.0938 5403804 382.6799927
512793.9375 5403808 385.8500061
512793.9062 5403809 386.6099854
512793.875 5403810.5 387.4500122
512793.875 5403811.5 388.0799866
512793.8438 5403813 388.3599854
512793.875 5403814 388.0899963
512793.9062 5403816.5 387.3800049
512793.875 5403818 387.5899963
512793.875 5403819 388
512793.875 5403830.5 388.2999878
512793.9062 5403832 388.269989
512793.9062 5403833 388.2200012
512794.0625 5403837 385.3399963
512794 5403841 386.7600098
512794 5403842 386.6900024
512794 5403843.5 386.6799927
512794 5403846 386.7099915
512793.875 5403847.5 389.2099915
512793.9688 5403848.5 387.4500122
512793.9688 5403850 387.4299927
512795.1875 5403849 386.8399963
512795.1875 5403847.5 386.7600098
512795.2188 5403846 386.75
512795.3438 5403837 385.269989
512795.25 5403836 387.7799988
512795.3125 5403830.5 387.019989
512795.3125 5403829.5 387.1600037
512795.375 5403819 387.4500122
512795.4062 5403817.5 387.3900146
512795.4062 5403816.5 387.2900085
512795.375 5403815 388.2900085
512795.4062 5403814 388.1099854
512795.4062 5403812.5 387.980011
512795.4375 5403811 387.6700134
512795.5 5403809.5 386.3900146
512795.7188 5403806.5 382.2600098
512795.75 5403805.5 382.1099854
512795.7812 5403802.5 381.9400024
512795.7812 5403801.5 381.8999939
512795.8125 5403800.5 381.8399963
512795.8125 5403799.5 381.5499878
512795.875 5403798.5 381.2099915
512795.9062 5403797 380.8599854
512795.9062 5403797 380.769989
512795.9688 5403796 380.4400024
512795.9688 5403796 380.4500122
512796 5403796 380.3500061
512796 5403795.5 380.2799988
512796 5403795.5 380.3299866
512796 5403795.5 380.3200073
512796.0312 5403795.5 380.269989
512796.0312 5403795.5 380.3299866
512796.0312 5403795.5 380.269989
512796.0625 5403795.5 380.2600098
512796.0625 5403795.5 380.3200073
512796.0625 5403796 380.269989
512796.0625 5403796.5 380.4500122
512796.0625 5403797.5 380.8399963
512796.0312 5403798.5 381.4299927
512796.0312 5403799.5 381.5599976
512796.0312 5403801 382.0400085
512796.0312 5403802 381.980011
512796.0312 5403803 381.8399963
512796.0312 5403804.5 382.0400085
512796.0312 5403807 382.2000122
512795.875 5403809.5 385.7200012
512795.8125 5403811 387.1400146
512795.8125 5403812 387.3999939
512795.7812 5403813.5 387.9500122
512795.7812 5403816 388.3399963
512795.7812 5403817 388.0700073
512795.8438 5403818.5 387.2999878
512795.875 5403828.5 386.9400024
512795.875 5403829.5 386.9500122
512795.9688 5403836 385.3599854
512795.9375 5403846.5 386.6700134
512795.9375 5403847.5 386.6900024
512795.9375 5403849 386.7999878
512797.125 5403849 386.6799927
512797.125 5403848 386.6300049
512797.1562 5403846.5 386.6799927
512797.1562 5403845.5 386.8399963
512797.2812 5403836 385.4400024
512797.1562 5403835 387.8999939
512797.25 5403831 386.9599915
512797.25 5403830 386.9599915
512797.2812 5403827.5 386.8999939
512797.2812 5403826 386.8299866
512797.3125 5403818 387.4200134
512797.3438 5403815.5 387.4500122
512797.4062 5403813 386.5799866
512797.4688 5403811.5 385.5400085
512797.4062 5403810.5 386.8599854
512797.4062 5403809 386.6499939
512797.6562 5403807 381.7000122
512797.6875 5403804.5 381.6400146
512797.7188 5403802 381.5599976
512797.75 5403800 381.019989
512797.75 5403799.5 381.5
512797.7812 5403798.5 380.5899963
512797.875 5403796.5 379.9400024
512797.9062 5403796.5 379.9200134
512797.9062 5403796.5 379.9400024
512797.9062 5403796 379.8900146
512797.9062 5403796 379.9299927
512797.9375 5403796 379.8900146
512797.9688 5403796.5 379.9299927
512798 5403796.5 379.9400024
512797.9688 5403799 380.7399902
512797.9375 5403802.5 381.4899902
512797.9375 5403805 381.730011
512797.9375 5403807 381.8099976
512797.8125 5403809 384.8900146
512797.7812 5403811 385.5899963
512797.7812 5403812.5 386.1300049
512797.75 5403815 387.0700073
512797.75 5403819 387.2600098
512797.7812 5403827.5 387.0499878
512797.8125 5403830 386.7999878
512797.875 5403831.5 385.7799988
512797.875 5403835.5 385.4200134
512797.9062 5403844.5 385.9500122
512797.9062 5403845.5 386.0499878
512799.0938 5403847 386.0599976
512799.0938 5403846 385.9700012
512799.2188 5403834 384.8999939
512799.2812 5403833 384.1499939
512799.1875 5403826.5 386.769989
512799.5938 5403807.5 381.2000122
512799.5625 5403806 381.5299988
512799.625 5403802.5 381.2600098
512799.625 5403801.5 380.9200134
512799.7188 5403798 380.7399902
512799.7812 5403797 379.7200012
512799.7812 5403797 379.9200134
512799.7812 5403797 380.1700134
512799.7812 5403797 380.0799866
512799.7812 5403796.5 380.2600098
512799.8125 5403796.5 380.2000122
512799.8125 5403796.5 379.769989
512799.8438 5403796.5 379.6300049
512799.8438 5403796.5 379.5299988
512799.8438 5403796.5 379.5899963
512799.875 5403796.5 379.519989
512799.875 5403796.5 379.6799927
512799.8438 5403797 380.1499939
512799.875 5403797.5 379.7099915
512799.8438 5403806.5 381.4200134
512799.875 5403807.5 381.0599976
512799.875 5403809 381.2900085
512799.6875 5403810.5 385.4100037
512799.6875 5403824.5 386.8900146
512799.6875 5403827 386.9299927
512799.7812 5403832 385.5299988
512799.8438 5403833 383.980011
512801.25 5403832 382.8900146
512801.1562 5403830.5 384.9100037
512801.1562 5403829.5 384.75
512801.125 5403827 386.019989
512801.125 5403825.5 386.3399963
512801.2188 5403815 385.4100037
512801.4688 5403808 381.0899963
512801.4688 5403807 381.3200073
512801.5 5403804 380.9700012
512801.5 5403803 380.9200134
512801.7812 5403801 379.9599915
512801.75 5403803.5 380.6499939
512801.75 5403804.5 380.8099976
512801.75 5403806 381.019989
512801.75 5403807 381.0400085
512801.75 5403808.5 381.2399902
512801.75 5403810.5 381.3599854
512801.5938 5403815 385.4700012
512801.5625 5403816 385.8599854
512801.5938 5403825 386.1300049
512801.625 5403826 385.9299927
512801.625 5403827.5 385.8099976
512801.6875 5403830 384.480011
512801.6875 5403831 384.9599915
512801.7812 5403832.5 382.8099976
512803.1562 5403831 382.7600098
512803.0312 5403827.5 385.730011
512803.0625 5403825 385.4299927
512803.0625 5403821 385.9100037
512803.0938 5403819.5 385.3299866
512803.0938 5403818.5 385.3299866
512803.3125 5403812.5 381.4700012
512803.3438 5403811 381.0700073
512803.3438 5403810 380.7799988
512803.3438 5403808.5 381.3900146
512803.375 5403807 380.519989
512803.375 5403806 381.1099854
512803.4375 5403802.5 379.7399902
512803.4688 5403800.5 379.5400085
512803.4688 5403800 379.5799866
512803.4688 5403800 379.6400146
512803.5 5403799.5 379.4400024
512803.5 5403799 379.25
512803.5 5403799 379.25
512803.5312 5403799 379.2799988
512803.5312 5403798.5 379.1199951
512803.5312 5403798.5 379.230011
512803.5625 5403798 379.0499878
512803.6562 5403798.5 378.9500122
512803.6562 5403799.5 379.4400024
512803.6562 5403806.5 380.1700134
512803.6562 5403807.5 380.7200012
512803.6562 5403809 380.5100098
512803.6562 5403810 380.730011
512803.6562 5403811 381.1499939
512803.625 5403812.5 381.4200134
512803.6562 5403813.5 381.4200134
512803.5 5403820 385.3500061
512803.5 5403821.5 385.7799988
512803.5312 5403824 385.4100037
512803.5312 5403826.5 385.6000061
512803.6875 5403831.5 382.7200012
512804.8438 5403850 385.1400146
512804.9062 5403832 385.519989
512805.0312 5403830.5 382.8099976
512804.9375 5403826.5 385.4200134
512805.25 5403810.5 380.2399902
512805.2188 5403809 381.1600037
512805.2812 5403805 379.7200012
512805.3125 5403804 379.4700012
512805.3438 5403800.5 379.7399902
512805.4062 5403799.5 378.0400085
512805.4688 5403798.5 377.8099976
512805.4688 5403798 377.8900146
512805.5 5403798 377.7799988
512805.5 5403798 377.7900085
512805.5 5403798 377.8900146
512805.5 5403798 378
512805.5312 5403798 378.0400085
512805.5625 5403798 378.0100098
512805.5312 5403802 379.1300049
512805.5625 5403803 379.2200012
512805.5625 5403804.5 379.4100037
512805.5312 5403810.5 380.4400024
512805.5312 5403814 380.980011
512805.375 5403822 385.1400146
512805.4062 5403827 385.1499939
512805.5625 5403829.5 382.6900024
512805.4375 5403831 385.3999939
512805.4375 5403832.5 385.5499878
512805.5625 5403849 385.1000061
512806.7188 5403849 385.1900024
512806.75 5403832.5 385.5100098
512806.9062 5403829.5 382.5400085
512806.7812 5403827 385.4200134
512806.9688 5403817.5 382.0100098
512807 5403816 381.7900085
512807.125 5403809.5 379.7900085
512807.1562 5403806.5 379.3500061
512807.1562 5403805.5 378.9700012
512807.2188 5403803 378.4700012
512807.2188 5403802.5 378.5400085
512807.2188 5403801.5 378.4200134
512807.25 5403801 377.7900085
512807.3438 5403798.5 377.0799866
512807.375 5403798.5 377.019989
512807.375 5403798.5 376.980011
512807.375 5403798.5 377.0299988
512807.375 5403798.5 376.9599915
512807.375 5403798.5 376.9599915
512807.4062 5403798.5 377.019989
512807.4062 5403798 376.9899902
512807.4062 5403798 377.019989
512807.4062 5403798 377.019989
512807.4375 5403798 377.0400085
512807.4375 5403798.5 376.9500122
512807.4375 5403798.5 377
512807.4375 5403800.5 377.9299927
512807.375 5403802.5 379.4599915
512807.4062 5403809.5 379.5599976
512807.3438 5403816 381.9599915
512807.3438 5403817 382.0400085
512807.3438 5403818.5 382.4200134
512807.2812 5403833 385.5299988
512807.3125 5403834 385.3999939
512807.4062 5403848.5 385.230011
512807.4062 5403849.5 385.1300049
512808.5938 5403849.5 384.9899902
512808.5938 5403848 385.0599976
512808.625 5403836.5 385.4500122
512808.625 5403835 385.4599915
512808.7812 5403834 382.269989
512808.8125 5403826 382.019989
512808.8125 5403822 382.6300049
512808.8125 5403820.5 382.7600098
512808.8438 5403819.5 382.1000061
512808.8438 5403818 381.8999939
512808.8438 5403816.5 382.0599976
512808.875 5403815 381.6600037
512808.875 5403814 381.3399963
512809 5403811 379.3699951
512808.9688 5403808.5 379.6499939
512809 5403806 379.6799927
512809.1562 5403800.5 377.25
512809.1562 5403800 377.1700134
512809.1875 5403799.5 376.9400024
512809.1875 5403799.5 376.9500122
512809.1875 5403799.5 376.9400024
512809.2188 5403799 376.9100037
512809.1875 5403799 377.7200012
512809.2188 5403798.5 377.6600037
512809.2188 5403799 377.7099915
512809.2188 5403798.5 377.5700073
512809.3125 5403799 376.6000061
512809.3125 5403799.5 376.7200012
512809.2812 5403802 377.9400024
512809.2812 5403806.5 378.730011
512809.25 5403809 379.5799866
512809.2812 5403810 379.519989
512809.2812 5403811 379.769989
512809.2188 5403814 381.3399963
512809.2188 5403815 381.730011
512809.1875 5403816.5 382.0499878
512809.2188 5403817.5 381.6600037
512809.2188 5403819 381.769989
512809.2188 5403820 382.1300049
512809.2188 5403821.5 382.3800049
512809.25 5403824 382
512809.2812 5403826.5 382
512809.2812 5403830.5 382.2900085
512809.3125 5403831.5 382.269989
512809.3125 5403833 382.3299866
512809.3125 5403834 382.3200073
512809.1875 5403836 385.3999939
512809.1875 5403837 385.5299988
512809.1875 5403838.5 385.480011
512809.2812 5403847.5 385.230011
512809.2812 5403848.5 385.1400146
512809.3125 5403850 385.1000061
512810.4688 5403850 385.0299988
512810.5 5403848.5 385.0400085
512810.4688 5403847.5 385.2600098
512810.5 5403841 385.4899902
512810.5 5403839.5 385.5299988
512810.6562 5403838 382.3099976
512810.6562 5403836.5 382.3500061
512810.6562 5403835.5 382.2799988
512810.6562 5403834 382.2799988
512810.6562 5403833 382.2799988
512810.6562 5403831.5 382.2399902
512810.6875 5403830 382.2600098
512810.7188 5403823.5 381.7600098
512810.75 5403821 381.5400085
512810.75 5403819.5 381.4500122
512810.75 5403818 381.4400024
512810.75 5403817 381.5100098
512810.75 5403815.5 381.4299927
512810.8438 5403813 379.6499939
512810.875 5403811.5 379.0799866
512810.9062 5403810 378.8399963
512810.9375 5403807.5 378.2600098
512810.9062 5403806 378.8500061
512810.9688 5403803.5 377.3999939
512811 5403803 377.3399963
512811.1562 5403802 377.9899902
512811.1875 5403803 377.2900085
512811.2188 5403804 377.2399902
512811.1875 5403806.5 377.9299927
512811.1875 5403810.5 378.9700012
512811.1875 5403811.5 378.8900146
512811.1562 5403812.5 379.6600037
512811.125 5403815.5 381.5
512811.125 5403816.5 381.4700012
512811.125 5403818 381.3299866
512811.1562 5403819 381.2900085
512811.1562 5403820.5 381.3900146
512811.1562 5403824 381.769989
512811.1875 5403830.5 382.2600098
512811.1875 5403832 382.25
512811.2188 5403833 382.1900024
512811.2188 5403834.5 382.2900085
512811.2188 5403836 382.269989
512811.25 5403837 382.2900085
512811.25 5403838.5 382.3200073
512811.125 5403840 385.3299866
512811.125 5403841 385.5299988
512811.1562 5403846.5 385.2799988
512811.1875 5403847.5 385.1000061
512812.4062 5403849 384.9700012
512812.4062 5403846.5 384.9500122
512812.375 5403845 385.5700073
512812.4062 5403843.5 385.519989
512812.4375 5403842.5 384.4400024
512812.4688 5403841 384.2099915
512812.5625 5403839.5 382.2600098
512812.5625 5403838.5 382.2399902
512812.5625 5403837 382.2099915
512812.5625 5403835.5 382.2399902
512812.5938 5403834.5 382.1700134
512812.5938 5403833 382.2200012
512812.5938 5403832 382.2099915
512812.6875 5403822.5 380.7900085
512812.6875 5403821 380.6700134
512812.6875 5403820 380.5700073
512812.6562 5403818.5 381.0899963
512812.6875 5403816 380.6300049
512812.875 5403805 377.1700134
512812.9062 5403804 376.6499939
512812.9375 5403803 376.3500061
512812.9062 5403802 376.8800049
512812.9688 5403801 376.1099854
512812.9375 5403801 377.0599976
512812.9375 5403800.5 377.0899963
512812.9688 5403800 376.6700134
512813 5403799.5 376.5499878
512813.0312 5403799.5 377.1000061
512813.0938 5403801.5 376.9700012
512813.125 5403803.5 376.6000061
512813.125 5403804.5 377.0599976
512813.125 5403808 377.7000122
512813.0938 5403819.5 380.6499939
512813.0938 5403820.5 380.4899902
512813.125 5403822 380.5599976
512813.125 5403824.5 380.7900085
512813.0938 5403829.5 382.1300049
512813.125 5403831 382.1799927
512813.125 5403832 382.1300049
512813.125 5403833.5 382.2000122
512813.125 5403835 382.2399902
512813.1562 5403836 382.2000122
512813.1562 5403837.5 382.2600098
512813.1562 5403839 382.2600098
512813.1875 5403840 382.2200012
512813.0938 5403841.5 384.4700012
512813.0938 5403843 384.519989
512813.125 5403846.5 384.8599854
512813.125 5403848 384.8999939
512814.3438 5403849 384.8800049
512814.375 5403842.5 384.4500122
512814.4062 5403841.5 384.3099976
512814.5 5403840 382.2200012
512814.5 5403838.5 382.1600037
512814.5 5403837.5 382.2200012
512814.5 5403836 382.1799927
512814.5 5403834.5 382.1199951
512814.5312 5403833.5 382.1099854
512814.5312 5403832 382.0599976
512814.5312 5403830.5 382.019989
512814.5312 5403829.5 381.9599915
512814.5938 5403825.5 380.6099854
512814.625 5403821.5 379.9899902
512814.6562 5403820 379.7999878
512814.625 5403818.5 380.2999878
512814.625 5403817.5 380.3099976
512814.75 5403812 377.9100037
512814.7812 5403810.5 377.5700073
512814.7812 5403808 377.3900146
512814.8125 5403806.5 377.1799927
512814.9062 5403805 375.0400085
512814.8438 5403804 376.5299988
512814.9688 5403801 374.5100098
512814.9688 5403801 374.5400085
512814.9688 5403800.5 374.6400146
512815 5403800 374.3500061
512815.0312 5403799.5 374.3999939
512815.125 5403800.5 374.3999939
512815.125 5403802.5 374.6600037
512815.0625 5403803.5 376.7999878
512815.0938 5403804.5 376.25
512815.0625 5403806 376.6700134
512815.0625 5403807 377.2600098
512815.0312 5403808.5 377.9899902
512815.0625 5403811 377.8200073
512815.0625 5403812 377.8699951
512815.0938 5403813 378.0400085
512815 5403816 380.4299927
512815.0312 5403817 380.0400085
512815.0625 5403818.5 379.5100098
512815.0312 5403819.5 380.019989
512815.0625 5403821 379.8900146
512815.0938 5403822 379.5499878
512815.0625 5403824.5 380.3200073
512815.0312 5403830 381.9700012
512815.0625 5403831 382
512815.0625 5403832.5 382.0599976
512815.0625 5403834 382.0700073
512815.0938 5403835 382.0899963
512815.0938 5403836.5 382.1600037
512815.0938 5403837.5 382.2099915
512815.125 5403839 382.2099915
512815.125 5403840.5 382.1799927
512815.0625 5403842 384.0700073
512815.0312 5403843 384.4299927
512815.0312 5403844.5 384.8699951
512815.0312 5403845.5 384.8999939
512815.0625 5403847 384.8599854
512815.0625 5403848 384.8599854
512815.0938 5403849.5 384.9400024
512816.3125 5403849.5 384.7900085
512816.3125 5403848 384.7900085
512816.3125 5403846.5 384.8699951
512816.3125 5403845.5 385.0400085
512816.3438 5403844 384.3699951
512816.375 5403843 384.0899963
512816.4375 5403841.5 382.0899963
512816.4375 5403840 382.1499939
512816.4688 5403839 382.0899963
512816.4375 5403837.5 382.3699951
512816.4375 5403836 382.4100037
512816.4688 5403835 382.0100098
512816.4688 5403831 381.8599854
512816.5 5403828.5 381.4299927
512816.5938 5403825.5 379.5299988
512816.625 5403824 379.3800049
512816.625 5403823 378.7099915
512816.625 5403821.5 379
512816.6562 5403820 378.7200012
512816.625 5403819 378.9100037
512816.625 5403817.5 378.9500122
512816.625 5403816 379
512816.6562 5403815 378.4700012
512816.7188 5403812 377.3099976
512816.75 5403808 377.1199951
512816.75 5403806.5 377.0899963
512816.875 5403804 374.3099976
512816.875 5403803.5 374.2099915
512816.9375 5403801 373.769989
512816.9375 5403801 373.75
512816.9375 5403800.5 373.7999878
512817.0938 5403802.5 374.1700134
512817.125 5403804.5 373.6300049
512817.0625 5403812 377.2600098
512817.0625 5403813.5 377.5100098
512817.0312 5403814.5 378.1499939
512817 5403816 379.0499878
512817 5403817.5 378.9700012
512817.0312 5403818.5 378.9400024
512817.0625 5403819.5 378.5400085
512817.0625 5403821 378.9299927
512817.0625 5403822 378.7200012
512817.0938 5403823.5 378.7099915
512817.0625 5403826 379.6199951
512817.0625 5403827.5 380
512817 5403829 381.5
512817 5403830 381.8399963
512817 5403831.5 381.8800049
512817.0312 5403835.5 382.1000061
512817.0312 5403836.5 382.1799927
512817.0625 5403839.5 382.3999939
512817.0938 5403840.5 382.0899963
512817.0312 5403842 383.7600098
512817.0312 5403844.5 384.1199951
512817 5403846 384.8099976
512817.0312 5403847 384.8099976
512818.2812 5403849.5 384.8099976
512818.2812 5403848.5 384.8500061
512818.25 5403847 385.5
512818.3438 5403845.5 383.7099915
512818.3438 5403844.5 383.6099854
512818.375 5403843 383.2000122
512818.4062 5403841.5 381.980011
512818.4062 5403840.5 381.9899902
512818.4062 5403839 382.0599976
512818.4688 5403831 381.4599915
512818.5 5403830 380.6900024
512818.5625 5403828.5 379.6099854
512818.5625 5403827 379.1199951
512818.5938 5403825.5 378.7900085
512818.625 5403823 378.2200012
512818.6562 5403821.5 377.4100037
512818.5938 5403820.5 379.0100098
512818.625 5403819 378.5400085
512818.625 5403817.5 377.9400024
512818.6562 5403816.5 377.7799988
512818.625 5403815 377.9100037
512818.625 5403813.5 378.0700073
512818.7188 5403811 376.2399902
512818.7812 5403809.5 375.3200073
512818.6875 5403808 376.9200134
512818.75 5403807 376.1300049
512818.875 5403804.5 373.3099976
512818.9062 5403803.5 372.6900024
512818.875 5403802.5 373.4200134
512818.9375 5403801 373
512818.875 5403801 374.2000122
512818.9688 5403800.5 372.8299866
512819 5403800 372.8599854
512819 5403799.5 372.8999939
512819.0312 5403801 374.0899963
512819.125 5403803.5 372.6300049
512819.0312 5403806 375.3399963
512819.0312 5403807.5 375.7799988
512819 5403809 376.1099854
512819.0625 5403810 375.1199951
512818.9688 5403815 378.1199951
512819 5403816 377.7799988
512819.0312 5403817.5 377.769989
512819.0312 5403818.5 378.1300049
512819 5403820 378.6700134
512819.0625 5403821 377.5700073
512819.0938 5403822.5 377.6199951
512819.0625 5403823.5 377.9899902
512819.0625 5403825 378.3399963
512819.0625 5403826.5 378.7999878
512819.0625 5403827.5 379.1300049
512819.0625 5403829 379.5
512819.0312 5403830.5 380.4299927
512818.9688 5403833 381.9500122
512819 5403838 382.519989
512819.0312 5403839.5 381.9400024
512819.0625 5403841 381.9299927
512819.0625 5403842 381.9599915
512819.0625 5403843.5 382.0599976
512819.0312 5403845 383.1300049
512819.0312 5403846 383.4200134
512818.9688 5403847.5 385.0899963
512819.125 5403850 382.6900024
512820.375 5403850 382.1799927
512820.375 5403848.5 381.9599915
512820.375 5403847 381.9200134
512820.375 5403846 381.8900146
512820.375 5403844.5 381.8999939
512820.375 5403843 381.8599854
512820.375 5403842 382.7000122
512820.375 5403840.5 382.7000122
512820.375 5403839.5 382.019989
512820.375 5403838 382.5599976
512820.5312 5403831 379.480011
512820.5312 5403830 379.0799866
512820.5938 5403826 377.7399902
512820.625 5403824.5 377.3299866
512820.625 5403823 377.019989
512820.5938 5403819.5 378.3099976
512820.5938 5403818 378.269989
512820.6562 5403816.5 376.9200134
512820.7188 5403811 375.8200073
512820.8438 5403804.5 373.4100037
512820.8438 5403803.5 373.0400085
512820.9062 5403802.5 372.1300049
512820.875 5403801 372.7200012
512821 5403800 372.2999878
512821 5403799.5 372.2200012
512821 5403799.5 372.3999939
512821 5403799.5 372.4100037
512821.0312 5403799.5 372.3900146
512821.0312 5403800 372.2399902
512821.0625 5403801 372.6799927
512821.0625 5403803 372.75
512821.0625 5403804 373.1700134
512821.0625 5403806.5 373.5499878
512821 5403812.5 376.4700012
512821.0625 5403817.5 376.3599854
512821 5403819 377.6400146
512821.0312 5403820 377.519989
512821.0938 5403821.5 376.3299866
512821.0938 5403822.5 376.75
512821.0938 5403824 376.8800049
512821.0938 5403825.5 377.1799927
512821.0938 5403826.5 377.6199951
512821.0625 5403830.5 378.9500122
512821.0625 5403832 379.4500122
512820.9688 5403838.5 382.3900146
512821.0312 5403840 381.4700012
512821.0625 5403841 381.3699951
512821.0625 5403842.5 381.5100098
512821.0625 5403845 382.2999878
512821.0938 5403846.5 381.9400024
512821.0938 5403847.5 381.8099976
512822.4062 5403848.5 381
512822.375 5403847.5 381.3699951
512822.375 5403846 381.3699951
512822.4062 5403845 380.8800049
512822.4375 5403843.5 380.5700073
512822.4375 5403842 380.4400024
512822.4062 5403841 380.8599854
512822.4062 5403839.5 381.0599976
512822.375 5403835.5 381.730011
512822.5312 5403833 378.8099976
512822.5312 5403831.5 378.7999878
512822.5938 5403828.5 377.5799866
512822.625 5403827.5 377.0400085
512822.625 5403826 376.5100098
512822.6562 5403822 375.75
512822.6875 5403820.5 375.6000061
512822.625 5403819.5 376.480011
512822.6875 5403816.5 375.6700134
512822.8125 5403806 372.7900085
512822.7812 5403804 373.7600098
512822.8438 5403803 372.8399963
512822.8438 5403802.5 372.730011
512822.9375 5403801.5 371.0599976
512822.9688 5403801 370.230011
512822.9688 5403801 370.2099915
512823 5403801 370.2399902
512823 5403800.5 370.2600098
512823 5403800.5 370.2200012
512823 5403800.5 370.4200134
512823 5403800.5 370.2099915
512823.0312 5403800 370.269989
512823.0312 5403800 370.3099976
512823.0312 5403800 370.5
512823.0625 5403800 370.4899902
512823.0938 5403799.5 370.2600098
512823.0938 5403799.5 370.2399902
512823.125 5403800.5 370.2600098
512823.125 5403801 370.0400085
512823.0625 5403818 375.5400085
512823.0625 5403819 376.1600037
512823.0938 5403820.5 375.3800049
512823.125 5403821.5 375.4599915
512823.125 5403823 375.7600098
512823.0938 5403824 376.1099854
512823.0938 5403827 376.6499939
512823.0625 5403832 378.480011
512823.0625 5403833.5 378.8200073
512822.9375 5403836.5 382.1400146
512823.0312 5403837.5 380.480011
512823.0312 5403839 380.6199951
512823.0625 5403840 380.6600037
512823.0938 5403841.5 380.480011
512823.0938 5403842.5 380.25
512823.0938 5403844 380.4599915
512823.125 5403845 380.519989
512823.125 5403846.5 380.7200012
512823.125 5403849 381.1700134
512824.4062 5403849 380.0499878
512824.4062 5403847.5 380.0400085
512824.4062 5403846.5 380.0899963
512824.4688 5403843.5 378.8200073
512824.5 5403842.5 378.6499939
512824.4688 5403841 378.7799988
512824.4062 5403840 380.2000122
512824.4688 5403838.5 378.8900146
512824.5 5403837 378.5599976
512824.5 5403836 378.5299988
512824.5 5403834.5 378.3800049
512824.5312 5403833 377.7900085
512824.625 5403827.5 376.2099915
512824.625 5403826.5 375.6199951
512824.6562 5403825 375.25
512824.6562 5403823.5 375.0899963
512824.6562 5403822 375.0700073
512824.6875 5403819.5 374.8399963
512824.625 5403818.5 376.0899963
512824.75 5403812.5 373.519989
512824.8125 5403811 371.9700012
512824.8125 5403810 371.8299866
512824.8438 5403808.5 371.4299927
512824.8438 5403807 371.1700134
512824.8438 5403806 371.2600098
512825 5403800.5 369.6600037
512825 5403800.5 369.5700073
512825.0312 5403800.5 369.2799988
512825.0312 5403800.5 369.2099915
512825.0312 5403800 369.1700134
512825.0312 5403800 369.2600098
512825.0625 5403800 369.2399902
512825.0625 5403800 369.2099915
512825.0625 5403800 369.2099915
512825.0938 5403800 369.1000061
512825.0938 5403800 369.1300049
512825.0938 5403800 369.1700134
512825.125 5403800.5 369.0899963
512825.0938 5403801 369.6199951
512825.0312 5403802.5 371.5400085
512825.125 5403806.5 370.8900146
512825.0938 5403808 371.7099915
512825.0938 5403809 371.5499878
512825 5403818 375.7999878
512825.0625 5403819.5 374.6600037
512825.0625 5403820.5 374.7999878
512825.0938 5403822 374.9700012
512825.0938 5403824.5 375.0599976
512825.125 5403825.5 375.2099915
512825.125 5403828.5 375.8699951
512825.0625 5403835 378.5100098
512825.0625 5403836.5 378.4599915
512825.0938 5403837.5 378.4400024
512825.0938 5403839 378.5700073
512825.0938 5403840.5 378.6900024
512825.125 5403843 378.6099854
512825.0625 5403844.5 380.25
512825.0938 5403845.5 380.1300049
512825.125 5403847 379.8399963
512825.125 5403848 379.75
512825.1875 5403849.5 378.7799988
512826.4375 5403849 378.3900146
512826.4688 5403848 377.7200012
512826.4375 5403846.5 378.2600098
512826.4375 5403845 378.230011
512826.375 5403841.5 379.2600098
512826.4375 5403840 377.980011
512826.4375 5403838.5 378
512826.4688 5403837.5 377.7099915
512826.4688 5403836 377.4200134
512826.5938 5403828 374.7799988
512826.5938 5403826.5 374.7399902
512826.625 5403825 374.6700134
512826.625 5403824 374.4700012
512826.625 5403822.5 374.3999939
512826.625 5403821 374.4299927
512826.625 5403820 373.9599915
512826.625 5403818.5 374.1499939
512826.625 5403817 374.269989
512826.75 5403810 371.3900146
512826.8438 5403804.5 370
512826.8438 5403802.5 370.1900024
512827.0312 5403804.5 370.0400085
512827.0625 5403806 370.1600037
512827.0625 5403810.5 371.1799927
512826.9375 5403814.5 374.5100098
512827 5403816 373.25
512827 5403817 374
512827 5403818.5 374.1400146
512827.0312 5403819.5 373.769989
512827.0625 5403820.5 373.2200012
512827.0312 5403822 374.25
512827.0312 5403823.5 374.3800049
512827.0625 5403826 374.519989
512827.0625 5403827.5 374.7999878
512827.0625 5403835.5 376.9400024
512827.0625 5403836.5 377.2399902
512827.0625 5403838 377.5400085
512827.0625 5403839.5 377.6300049
512827.0625 5403840.5 377.7200012
512827.0312 5403842 378.8299866
512827.0938 5403844.5 377.8200073
512827.125 5403846 377.8299866
512827.125 5403847 377.519989
512827.1562 5403848.5 377.3399963
512827.1562 5403850 377.4500122
512828.4062 5403849.5 376.5299988
512828.375 5403848 377.2799988
512828.375 5403845.5 377.4400024
512828.3438 5403841.5 378.5499878
512828.4062 5403840.5 377.1799927
512828.4062 5403839 377.0599976
512828.4062 5403837.5 376.9200134
512828.4375 5403836 376.3699951
512828.4375 5403835 376.1600037
512828.4688 5403833.5 375.7399902
512828.5 5403831 375
512828.5312 5403829.5 374.2999878
512828.5312 5403828 374.3800049
512828.5625 5403826.5 373.7999878
512828.5625 5403825.5 373.5400085
512828.5625 5403824 373.4400024
512828.5938 5403822.5 372.6799927
512828.625 5403821.5 372.5
512828.5938 5403820 372.9700012
512828.5938 5403818.5 373.1199951
512828.5312 5403817.5 374.1400146
512828.5625 5403814.5 373.8099976
512828.7188 5403809 370.230011
512828.7812 5403804 368.9200134
512828.8438 5403801.5 368.8099976
512828.875 5403801 368.6600037
512828.9062 5403800.5 368.4500122
512828.9062 5403800.5 368.4599915
512828.875 5403800.5 368.769989
512828.9062 5403800.5 368.8999939
512828.875 5403800.5 369.1199951
512828.9375 5403800.5 368.8099976
512828.9375 5403801 368.5799866
512828.9375 5403801.5 368.9599915
512828.9688 5403804 368.9299927
512828.9375 5403806 370.2999878
512828.9688 5403809.5 370.3800049
512828.9062 5403815 372.8699951
512828.9062 5403816 373.4700012
512828.9062 5403817.5 373.7099915
512828.9375 5403818.5 373.0400085
512829.0312 5403822 372.25
512829.0312 5403823.5 372.6799927
512829.0312 5403825 373.0799866
512829.0312 5403826 373.2399902
512829 5403827.5 373.9299927
512829 5403829 374.1300049
512829.0312 5403830 374.1900024
512829 5403834 375.6499939
512829 5403835.5 375.9599915
512829 5403837 376.1000061
512829 5403838.5 376.5899963
512829 5403839.5 377.0400085
512829 5403841 376.9200134
512829.0312 5403842 376.6600037
512829.0312 5403845 377.0499878
512829.0625 5403846 377.1799927
512829.0625 5403847.5 377.3200073
512829.0938 5403848.5 376.730011
512830.3125 5403849.5 377.269989
512830.3438 5403847 376.7000122
512830.3438 5403846 376.269989
512830.3438 5403844.5 376.4500122
512830.3438 5403843 376.3299866
512830.3438 5403842 376.269989
512830.375 5403840.5 375.769989
512830.375 5403838 375.4899902
512830.4062 5403836.5 375.3399963
512830.4062 5403835 375.0599976
512830.4375 5403834 374.6300049
512830.4688 5403831 373.6300049
512830.4688 5403829.5 373.5899963
512830.5 5403828.5 373.1700134
512830.5625 5403824 372.0700073
512830.5625 5403823 371.7099915
512830.5625 5403821.5 371.5400085
512830.5312 5403819 372.6099854
512830.4688 5403817.5 373.5899963
512830.5312 5403816 372.3500061
512830.5 5403815 373.4599915
512830.5312 5403813.5 372.5899963
512830.625 5403812 370.4200134
512830.7812 5403804 367.4200134
512830.7812 5403802.5 367.1000061
512830.8125 5403802 366.9700012
512830.8125 5403802 367.0100098
512830.8438 5403801.5 367.0299988
512830.875 5403801 366.980011
512830.875 5403801 367.4100037
512830.9688 5403803 367.1799927
512830.9375 5403804 368.0299988
512830.9062 5403810 369.8399963
512830.9062 5403812.5 370.8699951
512830.8438 5403814 372.519989
512830.875 5403815 372.4500122
512830.875 5403816.5 372.2900085
512830.8438 5403817.5 373.4400024
512830.9688 5403821 371.2900085
512830.9688 5403822.5 371.4400024
512830.9688 5403824 371.8099976
512830.9688 5403826.5 372.3800049
512830.9688 5403829 373.1199951
512830.9688 5403830.5 373.5799866
512830.9688 5403831.5 373.519989
512830.9688 5403833 374.0599976
512830.9688 5403834.5 374.3999939
512830.9688 5403835.5 374.7600098
512831 5403838.5 374.9899902
512831 5403839.5 375.2099915
512831 5403841 375.3699951
512830.9688 5403842.5 376.0299988
512831 5403844 376.0899963
512831 5403845 376.0899963
512831 5403846.5 376.2200012
512831.0938 5403849 374.9599915
512832.3438 5403844.5 374.6600037
512832.3438 5403843 374.8399963
512832.3438 5403842 374.7000122
512832.3438 5403840.5 374.6700134
512832.3438 5403839 374.4299927
512832.4062 5403834 373.2600098
512832.4062 5403832.5 373.0100098
512832.4062 5403831 372.9299927
512832.4375 5403830 372.519989
512832.4688 5403827 371.5899963
512832.5 5403823 370.8399963
512832.5312 5403821.5 370.519989
512832.5312 5403819 370.2999878
512832.5 5403813.5 371.5499878
512832.5312 5403812 370.5700073
512832.5938 5403810.5 369.25
512832.6562 5403809 367.9599915
512832.6562 5403806.5 367.6700134
512832.6562 5403805.5 367.6900024
512832.6875 5403804.5 367.3200073
512832.6875 5403804 367.1300049
512832.7812 5403801 366.3599854
512832.8125 5403801 366.2000122
512832.7812 5403801 367.0299988
512832.875 5403804 367.1499939
512832.9062 5403805 367.1300049
512832.8125 5403811.5 370.8200073
512832.8438 5403812.5 370.519989
512832.8125 5403814 371.3500061
512832.9062 5403816 369.9700012
512832.9375 5403821.5 370.3399963
512832.9062 5403824 371.6600037
512832.9375 5403826.5 371.2799988
512832.9375 5403832 372.8900146
512832.9375 5403833 372.769989
512832.9375 5403834.5 373.2399902
512832.9375 5403837 373.769989
512832.9375 5403838.5 373.980011
512832.9375 5403840 374.1499939
512832.9688 5403842.5 374.4200134
512832.9688 5403844 374.4299927
512832.9375 5403845 375.7999878
512833 5403846.5 374.8699951
512833.0625 5403849 373.7900085
512834.3125 5403843 373.6000061
512834.3125 5403842 373.6300049
512834.3125 5403840.5 373.5599976
512834.3125 5403839 373.4100037
512834.3438 5403838 373.1600037
512834.3438 5403836.5 372.980011
512834.375 5403835 372.4700012
512834.375 5403834 372.3900146
512834.4375 5403827 370.5899963
512834.4688 5403825.5 370.4599915
512834.5 5403821.5 369.6700134
512834.5312 5403819 369.269989
512834.5 5403814.5 369.4700012
512834.4688 5403813.5 370.1099854
512834.5625 5403812 368.2600098
512834.5312 5403809.5 368.9299927
512834.5625 5403808 368.6000061
512834.625 5403805 367.2799988
512834.6562 5403804 366.4700012
512834.6562 5403803.5 366.2600098
512834.6875 5403803 366.1300049
512834.6562 5403802.5 366.5700073
512834.75 5403801 365.5599976
512834.75 5403801 365.5899963
512834.75 5403811.5 370.4500122
512739.375 5403547.5 310.6499939
512739.375 5403547.5 310.7000122
512739.375 5403547.5 310.6900024
512739.375 5403547.5 310.7200012
512739.375 5403547.5 310.6400146
512737.3438 5403547.5 313.1400146
512737.3438 5403547.5 313.0899963
512737.3125 5403547.5 313.0299988
512737.3125 5403547.5 313.1199951
512737.3125 5403547.5 313.1400146
512735.2188 5403547.5 311.7200012
512735.2188 5403547.5 312.2900085
512735.2188 5403547.5 312.5899963
512735.2188 5403547.5 312.480011
512735.1875 5403547.5 312.5299988
512735.1875 5403547.5 312.480011
512735.1875 5403547.5 312.3999939
512735.1875 5403547.5 312.4899902
512735.1562 5403547.5 312.5100098
512735.1562 5403547.5 312.5799866
512735.1562 5403547.5 312.519989
512735.125 5403547.5 312.4299927
512733.0938 5403547.5 310.8900146
